ply
format ascii 1.0
comment Created by Open3D
element vertex 3162
property double x
property double y
property double z
end_header
73 66 -2.5122
74 66 -2.97048
75 66 -3.46619
76 66 -3.96736
77 66 -4.49829
78 66 -5.04366
79 66 -5.60803
80 66 -6.18137
81 66 -6.74049
82 66 -7.26795
83 66 -7.73681
84 66 -8.19843
85 66 -8.67836
86 66 -9.19722
87 66 -9.71182
88 66 -10.2806
89 66 -10.9482
90 66 -11.7056
91 66 -12.5728
92 66 -13.564
93 66 -14.7185
94 66 -16.0644
95 66 -17.808
96 66 -20.1227
97 66 -27.0586
98 66 -32.0708
99 66 -32.0708
100 66 -32.0708
101 66 -32.0708
102 66 -32.0708
103 66 -32.0708
104 66 -32.0708
105 66 -32.0708
106 66 -32.0708
107 66 -32.0708
108 66 -32.0708
109 66 -32.0708
110 66 -32.0708
111 66 -32.0708
112 66 -32.0708
113 66 -32.0708
114 66 -32.0708
115 66 -32.0708
116 66 -32.0708
117 66 -32.0708
118 66 -32.0708
119 66 -32.0708
0 67 -32.0708
1 67 -32.0708
2 67 -32.0708
3 67 -32.0708
4 67 -32.0708
5 67 -32.0708
6 67 -32.0708
7 67 -32.0708
8 67 -32.0708
9 67 -32.0708
10 67 -32.0708
11 67 -32.0708
12 67 -32.0708
13 67 -32.0708
14 67 -32.0708
15 67 -32.0708
16 67 -32.0708
17 67 -32.0708
18 67 -32.0708
19 67 -32.0708
20 67 -32.0708
21 67 -32.0708
22 67 -32.0708
23 67 -32.0708
24 67 -16.9496
25 67 -13.7653
26 67 -12.5478
27 67 -11.5139
28 67 -10.5945
29 67 -9.78085
30 67 -9.07612
31 67 -8.45695
32 67 -7.88803
33 67 -7.36781
34 67 -6.88952
35 67 -6.44292
36 67 -6.01007
37 67 -5.58782
38 67 -5.15528
39 67 -4.68819
40 67 -4.24185
41 67 -3.81475
42 67 -3.42656
43 67 -3.07567
44 67 -2.7769
45 67 -2.518
46 67 -2.27612
47 67 -2.03893
48 67 -1.82379
49 67 -1.61152
50 67 -1.40712
51 67 -1.22582
52 67 -1.04521
53 67 -0.887266
54 67 -0.752849
55 67 -0.645497
56 67 -0.555196
57 67 -0.497612
58 67 -0.452563
59 67 -0.411703
60 67 -0.383539
61 67 -0.366604
62 67 -0.3555
63 67 -0.364548
64 67 -0.401715
65 67 -0.446645
66 67 -0.523702
67 67 -0.623409
68 67 -0.785254
69 67 -0.984009
70 67 -1.23369
71 67 -1.51652
72 67 -1.8534
73 67 -2.24993
74 67 -2.7159
75 67 -3.2147
76 67 -3.71058
77 67 -4.23514
78 67 -4.7981
79 67 -5.34582
80 67 -5.93297
81 67 -6.51285
82 67 -7.07776
83 67 -7.58571
84 67 -8.08523
85 67 -8.57153
86 67 -9.09217
87 67 -9.61322
88 67 -10.2047
89 67 -10.8878
90 67 -11.6853
91 67 -12.5775
92 67 -13.5929
93 67 -14.808
94 67 -16.2152
95 67 -18.0134
96 67 -20.5754
97 67 -28.3894
98 67 -32.0708
99 67 -32.0708
100 67 -32.0708
101 67 -32.0708
102 67 -32.0708
103 67 -32.0708
104 67 -32.0708
105 67 -32.0708
106 67 -32.0708
107 67 -32.0708
108 67 -32.0708
109 67 -32.0708
110 67 -32.0708
111 67 -32.0708
112 67 -32.0708
113 67 -32.0708
114 67 -32.0708
115 67 -32.0708
116 67 -32.0708
117 67 -32.0708
118 67 -32.0708
119 67 -32.0708
0 68 -32.0708
1 68 -32.0708
2 68 -32.0708
3 68 -32.0708
4 68 -32.0708
5 68 -32.0708
6 68 -32.0708
7 68 -32.0708
8 68 -32.0708
9 68 -32.0708
10 68 -32.0708
11 68 -32.0708
12 68 -32.0708
13 68 -32.0708
14 68 -32.0708
15 68 -32.0708
16 68 -32.0708
17 68 -32.0708
18 68 -32.0708
19 68 -32.0708
20 68 -32.0708
21 68 -32.0708
22 68 -32.0708
23 68 -32.0708
24 68 -32.0708
25 68 -14.2656
26 68 -12.8507
27 68 -11.8314
28 68 -10.8887
29 68 -10.0596
30 68 -9.32497
31 68 -8.71314
32 68 -8.11772
33 68 -7.58407
34 68 -7.07661
35 68 -6.6154
36 68 -6.17078
37 68 -5.72529
38 68 -5.24451
39 68 -4.74368
40 68 -4.24246
41 68 -3.79497
42 68 -3.38467
43 68 -3.03396
44 68 -2.70619
45 68 -2.44827
46 68 -2.20377
47 68 -1.96612
48 68 -1.74157
49 68 -1.51994
50 68 -1.31258
51 68 -1.11202
52 68 -0.931682
53 68 -0.778791
54 68 -0.639259
55 68 -0.535458
56 68 -0.455344
57 68 -0.394006
58 68 -0.34594
59 68 -0.31765
60 68 -0.28904
61 68 -0.258085
62 68 -0.247286
63 68 -0.257527
64 68 -0.270964
65 68 -0.311768
66 68 -0.379336
67 68 -0.466632
68 68 -0.587674
69 68 -0.775918
70 68 -1.00881
71 68 -1.29472
72 68 -1.61139
73 68 -2.00195
74 68 -2.46923
75 68 -2.96638
76 68 -3.45729
77 68 -3.95606
78 68 -4.50879
79 68 -5.0853
80 68 -5.67779
81 68 -6.27987
82 68 -6.88851
83 68 -7.41515
84 68 -7.94686
85 68 -8.45494
86 68 -8.99396
87 68 -9.51041
88 68 -10.1122
89 68 -10.8258
90 68 -11.6465
91 68 -12.5774
92 68 -13.6636
93 68 -14.9115
94 68 -16.3619
95 68 -18.1921
96 68 -22.0052
97 68 -32.0708
98 68 -32.0708
99 68 -32.0708
100 68 -32.0708
101 68 -32.0708
102 68 -32.0708
103 68 -32.0708
104 68 -32.0708
105 68 -32.0708
106 68 -32.0708
107 68 -32.0708
108 68 -32.0708
109 68 -32.0708
110 68 -32.0708
111 68 -32.0708
112 68 -32.0708
113 68 -32.0708
114 68 -32.0708
115 68 -32.0708
116 68 -32.0708
117 68 -32.0708
118 68 -32.0708
119 68 -32.0708
0 69 -32.0708
1 69 -32.0708
2 69 -32.0708
3 69 -32.0708
4 69 -32.0708
5 69 -32.0708
6 69 -32.0708
7 69 -32.0708
8 69 -32.0708
9 69 -32.0708
10 69 -32.0708
11 69 -32.0708
12 69 -32.0708
13 69 -32.0708
14 69 -32.0708
15 69 -32.0708
16 69 -32.0708
17 69 -32.0708
18 69 -32.0708
19 69 -32.0708
20 69 -32.0708
21 69 -32.0708
22 69 -32.0708
23 69 -32.0708
24 69 -32.0708
25 69 -14.7984
26 69 -13.1425
27 69 -12.1329
28 69 -11.1825
29 69 -10.3181
30 69 -9.57966
31 69 -8.95739
32 69 -8.35484
33 69 -7.8063
34 69 -7.29079
35 69 -6.79856
36 69 -6.29871
37 69 -5.78205
38 69 -5.24944
39 69 -4.73056
40 69 -4.24411
41 69 -3.77249
42 69 -3.35294
43 69 -2.98404
44 69 -2.64723
45 69 -2.36843
46 69 -2.12546
47 69 -1.88066
48 69 -1.64773
49 69 -1.41844
50 69 -1.19892
51 69 -1.00531
52 69 -0.82207
53 69 -0.67048
54 69 -0.535617
55 69 -0.43032
56 69 -0.361118
57 69 -0.299938
58 69 -0.256361
59 69 -0.23004
60 69 -0.198229
61 69 -0.165788
62 69 -0.155077
63 69 -0.153455
64 69 -0.15413
65 69 -0.181526
66 69 -0.245031
67 69 -0.311548
68 69 -0.409321
69 69 -0.584148
70 69 -0.804155
71 69 -1.08129
72 69 -1.39704
73 69 -1.77022
74 69 -2.2266
75 69 -2.71622
76 69 -3.19909
77 69 -3.68608
78 69 -4.2453
79 69 -4.83286
80 69 -5.44959
81 69 -6.07052
82 69 -6.69699
83 69 -7.25255
84 69 -7.79213
85 69 -8.31769
86 69 -8.85249
87 69 -9.388
88 69 -9.98484
89 69 -10.7406
90 69 -11.608
91 69 -12.5799
92 69 -13.701
93 69 -15.0062
94 69 -16.57
95 69 -18.5559
96 69 -23.1881
97 69 -32.0708
98 69 -32.0708
99 69 -32.0708
100 69 -32.0708
101 69 -32.0708
102 69 -32.0708
103 69 -32.0708
104 69 -32.0708
105 69 -32.0708
106 69 -32.0708
107 69 -32.0708
108 69 -32.0708
109 69 -32.0708
110 69 -32.0708
111 69 -32.0708
112 69 -32.0708
113 69 -32.0708
114 69 -32.0708
115 69 -32.0708
116 69 -32.0708
117 69 -32.0708
118 69 -32.0708
119 69 -32.0708
0 70 -32.0708
1 70 -32.0708
2 70 -32.0708
3 70 -32.0708
4 70 -32.0708
5 70 -32.0708
6 70 -32.0708
7 70 -32.0708
8 70 -32.0708
9 70 -32.0708
10 70 -32.0708
11 70 -32.0708
12 70 -32.0708
13 70 -32.0708
14 70 -32.0708
15 70 -32.0708
16 70 -32.0708
17 70 -32.0708
18 70 -32.0708
19 70 -32.0708
20 70 -32.0708
21 70 -32.0708
22 70 -32.0708
23 70 -32.0708
24 70 -32.0708
25 70 -15.4673
26 70 -13.5297
27 70 -12.4593
28 70 -11.4792
29 70 -10.6304
30 70 -9.84293
31 70 -9.19346
32 70 -8.59791
33 70 -8.01923
34 70 -7.47236
35 70 -6.93867
36 70 -6.39225
37 70 -5.84528
38 70 -5.28732
39 70 -4.75258
40 70 -4.24602
41 70 -3.7854
42 70 -3.35381
43 70 -2.96448
44 70 -2.5999
45 70 -2.29428
46 70 -2.0441
47 70 -1.79816
48 70 -1.55343
49 70 -1.3157
50 70 -1.09208
51 70 -0.900098
52 70 -0.715905
53 70 -0.562348
54 70 -0.436245
55 70 -0.336107
56 70 -0.265492
57 70 -0.208268
58 70 -0.174024
59 70 -0.146424
60 70 -0.122306
61 70 -0.0947804
62 70 -0.0735864
63 70 -0.0661527
64 70 -0.0620001
65 70 -0.0810704
66 70 -0.1238
67 70 -0.172858
68 70 -0.251615
69 70 -0.402577
70 70 -0.609578
71 70 -0.877848
72 70 -1.19102
73 70 -1.56039
74 70 -2.00017
75 70 -2.4633
76 70 -2.94469
77 70 -3.42833
78 70 -3.99207
79 70 -4.60637
80 70 -5.24577
81 70 -5.88427
82 70 -6.50399
83 70 -7.10543
84 70 -7.64876
85 70 -8.19284
86 70 -8.73545
87 70 -9.28892
88 70 -9.91849
89 70 -10.6898
90 70 -11.552
91 70 -12.574
92 70 -13.778
93 70 -15.1622
94 70 -16.8434
95 70 -19.127
96 70 -24.6355
97 70 -32.0708
98 70 -32.0708
99 70 -32.0708
100 70 -32.0708
101 70 -32.0708
102 70 -32.0708
103 70 -32.0708
104 70 -32.0708
105 70 -32.0708
106 70 -32.0708
107 70 -32.0708
108 70 -32.0708
109 70 -32.0708
110 70 -32.0708
111 70 -32.0708
112 70 -32.0708
113 70 -32.0708
114 70 -32.0708
115 70 -32.0708
116 70 -32.0708
117 70 -32.0708
118 70 -32.0708
119 70 -32.0708
0 71 -32.0708
1 71 -32.0708
2 71 -32.0708
3 71 -32.0708
4 71 -32.0708
5 71 -32.0708
6 71 -32.0708
7 71 -32.0708
8 71 -32.0708
9 71 -32.0708
10 71 -32.0708
11 71 -32.0708
12 71 -32.0708
13 71 -32.0708
14 71 -32.0708
15 71 -32.0708
16 71 -32.0708
17 71 -32.0708
18 71 -32.0708
19 71 -32.0708
20 71 -32.0708
21 71 -32.0708
22 71 -32.0708
23 71 -32.0708
24 71 -32.0708
25 71 -16.3045
26 71 -13.9489
27 71 -12.7946
28 71 -11.8122
29 71 -10.9265
30 71 -10.1184
31 71 -9.4615
32 71 -8.82647
33 71 -8.22996
34 71 -7.65524
35 71 -7.07282
36 71 -6.49974
37 71 -5.92249
38 71 -5.35045
39 71 -4.80233
40 71 -4.27947
41 71 -3.80951
42 71 -3.36103
43 71 -2.96151
44 71 -2.59409
45 71 -2.24633
46 71 -1.96904
47 71 -1.71948
48 71 -1.46638
49 71 -1.22735
50 71 -0.996467
51 71 -0.795269
52 71 -0.614207
53 71 -0.465851
54 71 -0.342252
55 71 -0.258498
56 71 -0.190983
57 71 -0.148951
58 71 -0.116897
59 71 -0.0996815
60 71 -0.0743226
61 71 -0.0535934
62 71 -0.0283965
63 71 -0.00254328
64 71 0.0134773
65 71 0.00743243
66 71 -0.0119024
67 71 -0.0334509
68 71 -0.106664
69 71 -0.251924
70 71 -0.438243
71 71 -0.697035
72 71 -0.979698
73 71 -1.3458
74 71 -1.77248
75 71 -2.21667
76 71 -2.68411
77 71 -3.1804
78 71 -3.76847
79 71 -4.39508
80 71 -5.05039
81 71 -5.71125
82 71 -6.35196
83 71 -6.95761
84 71 -7.51215
85 71 -8.06944
86 71 -8.622
87 71 -9.19922
88 71 -9.8702
89 71 -10.669
90 71 -11.5639
91 71 -12.6118
92 71 -13.8656
93 71 -15.2795
94 71 -17.1336
95 71 -19.633
96 71 -25.8867
97 71 -32.0708
98 71 -32.0708
99 71 -32.0708
100 71 -32.0708
101 71 -32.0708
102 71 -32.0708
103 71 -32.0708
104 71 -32.0708
105 71 -32.0708
106 71 -32.0708
107 71 -32.0708
108 71 -32.0708
109 71 -32.0708
110 71 -32.0708
111 71 -32.0708
112 71 -32.0708
113 71 -32.0708
114 71 -32.0708
115 71 -32.0708
116 71 -32.0708
117 71 -32.0708
118 71 -32.0708
119 71 -32.0708
0 72 -32.0708
1 72 -32.0708
2 72 -32.0708
3 72 -32.0708
4 72 -32.0708
5 72 -32.0708
6 72 -32.0708
7 72 -32.0708
8 72 -32.0708
9 72 -32.0708
10 72 -32.0708
11 72 -32.0708
12 72 -32.0708
13 72 -32.0708
14 72 -32.0708
15 72 -32.0708
16 72 -32.0708
17 72 -32.0708
18 72 -32.0708
19 72 -32.0708
20 72 -32.0708
21 72 -32.0708
22 72 -32.0708
23 72 -32.0708
24 72 -32.0708
25 72 -16.9557
26 72 -14.4104
27 72 -13.1487
28 72 -12.1578
29 72 -11.2444
30 72 -10.3902
31 72 -9.71224
32 72 -9.04786
33 72 -8.43307
34 72 -7.81402
35 72 -7.21094
36 72 -6.61493
37 72 -6.00878
38 72 -5.42436
39 72 -4.85283
40 72 -4.3122
41 72 -3.83721
42 72 -3.38342
43 72 -2.97229
44 72 -2.59556
45 72 -2.2427
46 72 -1.93322
47 72 -1.6609
48 72 -1.39229
49 72 -1.13911
50 72 -0.898724
51 72 -0.699678
52 72 -0.520858
53 72 -0.37962
54 72 -0.264445
55 72 -0.187551
56 72 -0.135944
57 72 -0.101591
58 72 -0.0815711
59 72 -0.0729587
60 72 -0.0508131
61 72 -0.028939
62 72 -0.006116
63 72 0.0173145
64 72 0.0455404
65 72 0.0578654
66 72 0.0573938
67 72 0.0529474
68 72 -0.00574261
69 72 -0.126834
70 72 -0.288957
71 72 -0.524193
72 72 -0.800091
73 72 -1.15399
74 72 -1.55678
75 72 -1.98496
76 72 -2.4528
77 72 -2.9779
78 72 -3.57051
79 72 -4.21058
80 72 -4.89323
81 72 -5.58131
82 72 -6.24483
83 72 -6.8655
84 72 -7.42671
85 72 -7.9968
86 72 -8.57528
87 72 -9.16854
88 72 -9.85392
89 72 -10.6561
90 72 -11.5691
91 72 -12.6262
92 72 -13.8853
93 72 -15.3856
94 72 -17.3428
95 72 -20.019
96 72 -27.2799
97 72 -32.0708
98 72 -32.0708
99 72 -32.0708
100 72 -32.0708
101 72 -32.0708
102 72 -32.0708
103 72 -32.0708
104 72 -32.0708
105 72 -32.0708
106 72 -32.0708
107 72 -32.0708
108 72 -32.0708
109 72 -32.0708
110 72 -32.0708
111 72 -32.0708
112 72 -32.0708
113 72 -32.0708
114 72 -32.0708
115 72 -32.0708
116 72 -32.0708
117 72 -32.0708
118 72 -32.0708
119 72 -32.0708
0 73 -32.0708
1 73 -32.0708
2 73 -32.0708
3 73 -32.0708
4 73 -32.0708
5 73 -32.0708
6 73 -32.0708
7 73 -32.0708
8 73 -32.0708
9 73 -32.0708
10 73 -32.0708
11 73 -32.0708
12 73 -32.0708
13 73 -32.0708
14 73 -32.0708
15 73 -32.0708
16 73 -32.0708
17 73 -32.0708
18 73 -32.0708
19 73 -32.0708
20 73 -32.0708
21 73 -32.0708
22 73 -32.0708
23 73 -32.0708
24 73 -32.0708
25 73 -17.437
26 73 -14.9394
27 73 -13.5335
28 73 -12.5129
29 73 -11.5586
30 73 -10.7161
31 73 -9.92688
32 73 -9.25809
33 73 -8.61203
34 73 -7.97283
35 73 -7.35199
36 73 -6.72663
37 73 -6.11313
38 73 -5.51873
39 73 -4.94563
40 73 -4.39756
41 73 -3.89879
42 73 -3.43317
43 73 -3.01751
44 73 -2.62389
45 73 -2.25588
46 73 -1.92188
47 73 -1.62937
48 73 -1.3566
49 73 -1.08779
50 73 -0.825189
51 73 -0.626079
52 73 -0.457975
53 73 -0.317803
54 73 -0.212884
55 73 -0.133811
56 73 -0.0964314
57 73 -0.0781786
58 73 -0.064963
59 73 -0.0657425
60 73 -0.054808
61 73 -0.0304079
62 73 -0.000474441
63 73 0.0234443
64 73 0.0447849
65 73 0.0701095
66 73 0.093081
67 73 0.117255
68 73 0.064975
69 73 -0.0389612
70 73 -0.205136
71 73 -0.397944
72 73 -0.644218
73 73 -0.973401
74 73 -1.3569
75 73 -1.7716
76 73 -2.23904
77 73 -2.7806
78 73 -3.38005
79 73 -4.05327
80 73 -4.76004
81 73 -5.48167
82 73 -6.18682
83 73 -6.81293
84 73 -7.39939
85 73 -7.98277
86 73 -8.56031
87 73 -9.17332
88 73 -9.85423
89 73 -10.6534
90 73 -11.5762
91 73 -12.648
92 73 -13.9015
93 73 -15.5026
94 73 -17.5644
95 73 -20.5186
96 73 -28.313
97 73 -32.0708
98 73 -32.0708
99 73 -32.0708
100 73 -32.0708
101 73 -32.0708
102 73 -32.0708
103 73 -32.0708
104 73 -32.0708
105 73 -32.0708
106 73 -32.0708
107 73 -32.0708
108 73 -32.0708
109 73 -32.0708
110 73 -32.0708
111 73 -32.0708
112 73 -32.0708
113 73 -32.0708
114 73 -32.0708
115 73 -32.0708
116 73 -32.0708
117 73 -32.0708
118 73 -32.0708
119 73 -32.0708
0 74 -32.0708
1 74 -32.0708
2 74 -32.0708
3 74 -32.0708
4 74 -32.0708
5 74 -32.0708
6 74 -32.0708
7 74 -32.0708
8 74 -32.0708
9 74 -32.0708
10 74 -32.0708
11 74 -32.0708
12 74 -32.0708
13 74 -32.0708
14 74 -32.0708
15 74 -32.0708
16 74 -32.0708
17 74 -32.0708
18 74 -32.0708
19 74 -32.0708
20 74 -32.0708
21 74 -32.0708
22 74 -32.0708
23 74 -32.0708
24 74 -32.0708
25 74 -18.2518
26 74 -15.5162
27 74 -13.9721
28 74 -12.8833
29 74 -11.9016
30 74 -11.0366
31 74 -10.2376
32 74 -9.46353
33 74 -8.79186
34 74 -8.133
35 74 -7.49044
36 74 -6.86589
37 74 -6.24045
38 74 -5.63005
39 74 -5.03591
40 74 -4.48444
41 74 -3.9711
42 74 -3.5048
43 74 -3.0873
44 74 -2.67628
45 74 -2.29697
46 74 -1.95059
47 74 -1.62788
48 74 -1.34606
49 74 -1.07799
50 74 -0.812128
51 74 -0.593975
52 74 -0.420219
53 74 -0.282512
54 74 -0.167998
55 74 -0.104453
56 74 -0.066175
57 74 -0.0605969
58 74 -0.0683467
59 74 -0.0681051
60 74 -0.0754889
61 74 -0.0534415
62 74 -0.0325391
63 74 -0.00603054
64 74 0.0240956
65 74 0.0587095
66 74 0.0955319
67 74 0.138028
68 74 0.095116
69 74 0.0128027
70 74 -0.127978
71 74 -0.322551
72 74 -0.560416
73 74 -0.852897
74 74 -1.16213
75 74 -1.58551
76 74 -2.04627
77 74 -2.60123
78 74 -3.22689
79 74 -3.92725
80 74 -4.65876
81 74 -5.40175
82 74 -6.15483
83 74 -6.79336
84 74 -7.41501
85 74 -8.01444
86 74 -8.61419
87 74 -9.22888
88 74 -9.91249
89 74 -10.6942
90 74 -11.6565
91 74 -12.7237
92 74 -14.0143
93 74 -15.6043
94 74 -17.815
95 74 -21.1429
96 74 -29.3436
97 74 -32.0708
98 74 -32.0708
99 74 -32.0708
100 74 -32.0708
101 74 -32.0708
102 74 -32.0708
103 74 -32.0708
104 74 -32.0708
105 74 -32.0708
106 74 -32.0708
107 74 -32.0708
108 74 -32.0708
109 74 -32.0708
110 74 -32.0708
111 74 -32.0708
112 74 -32.0708
113 74 -32.0708
114 74 -32.0708
115 74 -32.0708
116 74 -32.0708
117 74 -32.0708
118 74 -32.0708
119 74 -32.0708
0 75 -32.0708
1 75 -32.0708
2 75 -32.0708
3 75 -32.0708
4 75 -32.0708
5 75 -32.0708
6 75 -32.0708
7 75 -32.0708
8 75 -32.0708
9 75 -32.0708
10 75 -32.0708
11 75 -32.0708
12 75 -32.0708
13 75 -32.0708
14 75 -32.0708
15 75 -32.0708
16 75 -32.0708
17 75 -32.0708
18 75 -32.0708
19 75 -32.0708
20 75 -32.0708
21 75 -32.0708
22 75 -32.0708
23 75 -32.0708
24 75 -32.0708
25 75 -19.1421
26 75 -16.0953
27 75 -14.4998
28 75 -13.3325
29 75 -12.3438
30 75 -11.3878
31 75 -10.5409
32 75 -9.75294
33 75 -8.99994
34 75 -8.31334
35 75 -7.64783
36 75 -7.00793
37 75 -6.38704
38 75 -5.76615
39 75 -5.16443
40 75 -4.60086
41 75 -4.08346
42 75 -3.61508
43 75 -3.19671
44 75 -2.7765
45 75 -2.38654
46 75 -2.03282
47 75 -1.70271
48 75 -1.40438
49 75 -1.11802
50 75 -0.865642
51 75 -0.632778
52 75 -0.432799
53 75 -0.271567
54 75 -0.160039
55 75 -0.103107
56 75 -0.0856095
57 75 -0.0753622
58 75 -0.0764525
59 75 -0.0897542
60 75 -0.102475
61 75 -0.108229
62 75 -0.0861508
63 75 -0.0582083
64 75 -0.0293245
65 75 0.000529956
66 75 0.0347263
67 75 0.0897228
68 75 0.0615547
69 75 -0.0188504
70 75 -0.131912
71 75 -0.29877
72 75 -0.499523
73 75 -0.748523
74 75 -1.05006
75 75 -1.42878
76 75 -1.89683
77 75 -2.44791
78 75 -3.09009
79 75 -3.82285
80 75 -4.56933
81 75 -5.35858
82 75 -6.12468
83 75 -6.82157
84 75 -7.45566
85 75 -8.06354
86 75 -8.66488
87 75 -9.30336
88 75 -10.01
89 75 -10.8161
90 75 -11.7697
91 75 -12.8313
92 75 -14.08
93 75 -15.7197
94 75 -17.8996
95 75 -22.8981
96 75 -32.0708
97 75 -32.0708
98 75 -32.0708
99 75 -32.0708
100 75 -32.0708
101 75 -32.0708
102 75 -32.0708
103 75 -32.0708
104 75 -32.0708
105 75 -32.0708
106 75 -32.0708
107 75 -32.0708
108 75 -32.0708
109 75 -32.0708
110 75 -32.0708
111 75 -32.0708
112 75 -32.0708
113 75 -32.0708
114 75 -32.0708
115 75 -32.0708
116 75 -32.0708
117 75 -32.0708
118 75 -32.0708
119 75 -32.0708
0 76 -32.0708
1 76 -32.0708
2 76 -32.0708
3 76 -32.0708
4 76 -32.0708
5 76 -32.0708
6 76 -32.0708
7 76 -32.0708
8 76 -32.0708
9 76 -32.0708
10 76 -32.0708
11 76 -32.0708
12 76 -32.0708
13 76 -32.0708
14 76 -32.0708
15 76 -32.0708
16 76 -32.0708
17 76 -32.0708
18 76 -32.0708
19 76 -32.0708
20 76 -32.0708
21 76 -32.0708
22 76 -32.0708
23 76 -32.0708
24 76 -32.0708
25 76 -32.0708
26 76 -17.0185
27 76 -15.2438
28 76 -13.8646
29 76 -12.7975
30 76 -11.8263
31 76 -10.884
32 76 -10.0515
33 76 -9.25171
34 76 -8.49493
35 76 -7.81393
36 76 -7.1648
37 76 -6.52283
38 76 -5.90049
39 76 -5.31768
40 76 -4.73985
41 76 -4.22046
42 76 -3.75289
43 76 -3.32604
44 76 -2.89942
45 76 -2.51365
46 76 -2.15182
47 76 -1.82908
48 76 -1.50923
49 76 -1.2127
50 76 -0.957285
51 76 -0.740083
52 76 -0.535895
53 76 -0.342461
54 76 -0.218435
55 76 -0.14753
56 76 -0.108222
57 76 -0.0940308
58 76 -0.100379
59 76 -0.112469
60 76 -0.143574
61 76 -0.158991
62 76 -0.151965
63 76 -0.145852
64 76 -0.118612
65 76 -0.0946637
66 76 -0.053864
67 76 -0.0245489
68 76 -0.0485093
69 76 -0.0856951
70 76 -0.180547
71 76 -0.329346
72 76 -0.512425
73 76 -0.735633
74 76 -0.999992
75 76 -1.3252
76 76 -1.75692
77 76 -2.33123
78 76 -2.99942
79 76 -3.75344
80 76 -4.51122
81 76 -5.31045
82 76 -6.1145
83 76 -6.84581
84 76 -7.4802
85 76 -8.12212
86 76 -8.78115
87 76 -9.43072
88 76 -10.1505
89 76 -10.9653
90 76 -11.9121
91 76 -12.9874
92 76 -14.2401
93 76 -15.9103
94 76 -18.2731
95 76 -23.9184
96 76 -32.0708
97 76 -32.0708
98 76 -32.0708
99 76 -32.0708
100 76 -32.0708
101 76 -32.0708
102 76 -32.0708
103 76 -32.0708
104 76 -32.0708
105 76 -32.0708
106 76 -32.0708
107 76 -32.0708
108 76 -32.0708
109 76 -32.0708
110 76 -32.0708
111 76 -32.0708
112 76 -32.0708
113 76 -32.0708
114 76 -32.0708
115 76 -32.0708
116 76 -32.0708
117 76 -32.0708
118 76 -32.0708
119 76 -32.0708
0 77 -32.0708
1 77 -32.0708
2 77 -32.0708
3 77 -32.0708
4 77 -32.0708
5 77 -32.0708
6 77 -32.0708
7 77 -32.0708
8 77 -32.0708
9 77 -32.0708
10 77 -32.0708
11 77 -32.0708
12 77 -32.0708
13 77 -32.0708
14 77 -32.0708
15 77 -32.0708
16 77 -32.0708
17 77 -32.0708
18 77 -32.0708
19 77 -32.0708
20 77 -32.0708
21 77 -32.0708
22 77 -32.0708
23 77 -32.0708
24 77 -32.0708
25 77 -32.0708
26 77 -18.0258
27 77 -15.943
28 77 -14.516
29 77 -13.3854
30 77 -12.3336
31 77 -11.31
32 77 -10.4037
33 77 -9.55413
34 77 -8.77392
35 77 -8.02908
36 77 -7.33683
37 77 -6.69653
38 77 -6.06961
39 77 -5.47362
40 77 -4.90575
41 77 -4.38724
42 77 -3.92094
43 77 -3.4889
44 77 -3.0665
45 77 -2.66519
46 77 -2.31764
47 77 -1.99513
48 77 -1.69212
49 77 -1.38313
50 77 -1.12176
51 77 -0.883888
52 77 -0.664961
53 77 -0.459027
54 77 -0.286406
55 77 -0.202644
56 77 -0.143874
57 77 -0.116688
58 77 -0.126667
59 77 -0.159847
60 77 -0.197768
61 77 -0.225966
62 77 -0.243362
63 77 -0.253308
64 77 -0.237014
65 77 -0.1988
66 77 -0.171577
67 77 -0.170369
68 77 -0.171499
69 77 -0.205837
70 77 -0.2977
71 77 -0.405217
72 77 -0.562157
73 77 -0.771259
74 77 -0.99978
75 77 -1.30576
76 77 -1.65559
77 77 -2.24325
78 77 -2.93899
79 77 -3.70997
80 77 -4.49201
81 77 -5.29395
82 77 -6.10321
83 77 -6.84198
84 77 -7.51994
85 77 -8.20039
86 77 -8.88511
87 77 -9.57672
88 77 -10.3099
89 77 -11.1272
90 77 -12.0847
91 77 -13.1454
92 77 -14.4484
93 77 -16.1717
94 77 -18.6515
95 77 -25.2838
96 77 -32.0708
97 77 -32.0708
98 77 -32.0708
99 77 -32.0708
100 77 -32.0708
101 77 -32.0708
102 77 -32.0708
103 77 -32.0708
104 77 -32.0708
105 77 -32.0708
106 77 -32.0708
107 77 -32.0708
108 77 -32.0708
109 77 -32.0708
110 77 -32.0708
111 77 -32.0708
112 77 -32.0708
113 77 -32.0708
114 77 -32.0708
115 77 -32.0708
116 77 -32.0708
117 77 -32.0708
118 77 -32.0708
119 77 -32.0708
0 78 -32.0708
1 78 -32.0708
2 78 -32.0708
3 78 -32.0708
4 78 -32.0708
5 78 -32.0708
6 78 -32.0708
7 78 -32.0708
8 78 -32.0708
9 78 -32.0708
10 78 -32.0708
11 78 -32.0708
12 78 -32.0708
13 78 -32.0708
14 78 -32.0708
15 78 -32.0708
16 78 -32.0708
17 78 -32.0708
18 78 -32.0708
19 78 -32.0708
20 78 -32.0708
21 78 -32.0708
22 78 -32.0708
23 78 -32.0708
24 78 -32.0708
25 78 -32.0708
26 78 -18.8367
27 78 -16.8439
28 78 -15.296
29 78 -14.0619
30 78 -12.9052
31 78 -11.794
32 78 -10.7885
33 78 -9.91418
34 78 -9.0582
35 78 -8.28623
36 78 -7.55144
37 78 -6.88048
38 78 -6.24862
39 78 -5.66487
40 78 -5.10802
41 78 -4.60214
42 78 -4.12239
43 78 -3.69388
44 78 -3.26856
45 78 -2.87999
46 78 -2.52653
47 78 -2.2088
48 78 -1.92043
49 78 -1.61112
50 78 -1.32922
51 78 -1.07339
52 78 -0.811126
53 78 -0.599526
54 78 -0.430672
55 78 -0.289815
56 78 -0.222232
57 78 -0.176648
58 78 -0.174787
59 78 -0.220121
60 78 -0.265241
61 78 -0.316173
62 78 -0.356007
63 78 -0.37712
64 78 -0.369846
65 78 -0.365311
66 78 -0.349713
67 78 -0.345356
68 78 -0.327657
69 78 -0.34938
70 78 -0.423155
71 78 -0.534141
72 78 -0.68872
73 78 -0.866658
74 78 -1.06651
75 78 -1.33106
76 78 -1.6794
77 78 -2.20007
78 78 -2.90421
79 78 -3.67927
80 78 -4.46811
81 78 -5.27014
82 78 -6.06957
83 78 -6.86202
84 78 -7.58602
85 78 -8.2868
86 78 -8.99411
87 78 -9.7166
88 78 -10.4974
89 78 -11.3423
90 78 -12.2941
91 78 -13.3761
92 78 -14.6913
93 78 -16.5164
94 78 -19.1943
95 78 -26.5335
96 78 -32.0708
97 78 -32.0708
98 78 -32.0708
99 78 -32.0708
100 78 -32.0708
101 78 -32.0708
102 78 -32.0708
103 78 -32.0708
104 78 -32.0708
105 78 -32.0708
106 78 -32.0708
107 78 -32.0708
108 78 -32.0708
109 78 -32.0708
110 78 -32.0708
111 78 -32.0708
112 78 -32.0708
113 78 -32.0708
114 78 -32.0708
115 78 -32.0708
116 78 -32.0708
117 78 -32.0708
118 78 -32.0708
119 78 -32.0708
0 79 -32.0708
1 79 -32.0708
2 79 -32.0708
3 79 -32.0708
4 79 -32.0708
5 79 -32.0708
6 79 -32.0708
7 79 -32.0708
8 79 -32.0708
9 79 -32.0708
10 79 -32.0708
11 79 -32.0708
12 79 -32.0708
13 79 -32.0708
14 79 -32.0708
15 79 -32.0708
16 79 -32.0708
17 79 -32.0708
18 79 -32.0708
19 79 -32.0708
20 79 -32.0708
21 79 -32.0708
22 79 -32.0708
23 79 -32.0708
24 79 -32.0708
25 79 -32.0708
26 79 -32.0708
27 79 -18.1347
28 79 -16.2779
29 79 -14.8762
30 79 -13.5895
31 79 -12.3349
32 79 -11.2253
33 79 -10.2604
34 79 -9.38806
35 79 -8.55408
36 79 -7.79682
37 79 -7.1051
38 79 -6.46354
39 79 -5.87339
40 79 -5.34523
41 79 -4.83318
42 79 -4.35014
43 79 -3.92544
44 79 -3.51097
45 79 -3.10844
46 79 -2.77266
47 79 -2.4531
48 79 -2.16473
49 79 -1.88168
50 79 -1.58759
51 79 -1.30784
52 79 -1.04685
53 79 -0.807155
54 79 -0.605311
55 79 -0.417961
56 79 -0.318032
57 79 -0.267078
58 79 -0.26647
59 79 -0.313047
60 79 -0.377609
61 79 -0.437518
62 79 -0.495621
63 79 -0.518005
64 79 -0.55265
65 79 -0.612973
66 79 -0.630328
67 79 -0.636478
68 79 -0.595746
69 79 -0.538665
70 79 -0.564679
71 79 -0.678883
72 79 -0.847121
73 79 -1.02733
74 79 -1.20399
75 79 -1.42746
76 79 -1.75056
77 79 -2.2216
78 79 -2.89883
79 79 -3.6587
80 79 -4.46521
81 79 -5.28394
82 79 -6.09677
83 79 -6.89939
84 79 -7.66011
85 79 -8.38972
86 79 -9.12127
87 79 -9.84747
88 79 -10.65
89 79 -11.5379
90 79 -12.5048
91 79 -13.6305
92 79 -14.9904
93 79 -16.926
94 79 -19.8423
95 79 -27.7797
96 79 -32.0708
97 79 -32.0708
98 79 -32.0708
99 79 -32.0708
100 79 -32.0708
101 79 -32.0708
102 79 -32.0708
103 79 -32.0708
104 79 -32.0708
105 79 -32.0708
106 79 -32.0708
107 79 -32.0708
108 79 -32.0708
109 79 -32.0708
110 79 -32.0708
111 79 -32.0708
112 79 -32.0708
113 79 -32.0708
114 79 -32.0708
115 79 -32.0708
116 79 -32.0708
117 79 -32.0708
118 79 -32.0708
119 79 -32.0708
0 80 -32.0708
1 80 -32.0708
2 80 -32.0708
3 80 -32.0708
4 80 -32.0708
5 80 -32.0708
6 80 -32.0708
7 80 -32.0708
8 80 -32.0708
9 80 -32.0708
10 80 -32.0708
11 80 -32.0708
12 80 -32.0708
13 80 -32.0708
14 80 -32.0708
15 80 -32.0708
16 80 -32.0708
17 80 -32.0708
18 80 -32.0708
19 80 -32.0708
20 80 -32.0708
21 80 -32.0708
22 80 -32.0708
23 80 -32.0708
24 80 -32.0708
25 80 -32.0708
26 80 -32.0708
27 80 -19.433
28 80 -17.4426
29 80 -15.7472
30 80 -14.3052
31 80 -12.9812
32 80 -11.7615
33 80 -10.6725
34 80 -9.74573
35 80 -8.90463
36 80 -8.13808
37 80 -7.40216
38 80 -6.75078
39 80 -6.14226
40 80 -5.59017
41 80 -5.10382
42 80 -4.62355
43 80 -4.19659
44 80 -3.78113
45 80 -3.38828
46 80 -3.0502
47 80 -2.74134
48 80 -2.44372
49 80 -2.15424
50 80 -1.86762
51 80 -1.58394
52 80 -1.30195
53 80 -1.02566
54 80 -0.767053
55 80 -0.616263
56 80 -0.454987
57 80 -0.40099
58 80 -0.395848
59 80 -0.439253
60 80 -0.513628
61 80 -0.589149
62 80 -0.652298
63 80 -0.726917
64 80 -0.820333
65 80 -0.925158
66 80 -0.986409
67 80 -0.99754
68 80 -0.945781
69 80 -0.877603
70 80 -0.846382
71 80 -0.90604
72 80 -1.03496
73 80 -1.22681
74 80 -1.42961
75 80 -1.6288
76 80 -1.90845
77 80 -2.31223
78 80 -2.92731
79 80 -3.6964
80 80 -4.50335
81 80 -5.31108
82 80 -6.14634
83 80 -6.96356
84 80 -7.72698
85 80 -8.48226
86 80 -9.24075
87 80 -10.0031
88 80 -10.8256
89 80 -11.7517
90 80 -12.7576
91 80 -13.8617
92 80 -15.2321
93 80 -17.2395
94 80 -20.5059
95 80 -29.5146
96 80 -32.0708
97 80 -32.0708
98 80 -32.0708
99 80 -32.0708
100 80 -32.0708
101 80 -32.0708
102 80 -32.0708
103 80 -32.0708
104 80 -32.0708
105 80 -32.0708
106 80 -32.0708
107 80 -32.0708
108 80 -32.0708
109 80 -32.0708
110 80 -32.0708
111 80 -32.0708
112 80 -32.0708
113 80 -32.0708
114 80 -32.0708
115 80 -32.0708
116 80 -32.0708
117 80 -32.0708
118 80 -32.0708
119 80 -32.0708
0 81 -32.0708
1 81 -32.0708
2 81 -32.0708
3 81 -32.0708
4 81 -32.0708
5 81 -32.0708
6 81 -32.0708
7 81 -32.0708
8 81 -32.0708
9 81 -32.0708
10 81 -32.0708
11 81 -32.0708
12 81 -32.0708
13 81 -32.0708
14 81 -32.0708
15 81 -32.0708
16 81 -32.0708
17 81 -32.0708
18 81 -32.0708
19 81 -32.0708
20 81 -32.0708
21 81 -32.0708
22 81 -32.0708
23 81 -32.0708
24 81 -32.0708
25 81 -32.0708
26 81 -32.0708
27 81 -20.6111
28 81 -18.5551
29 81 -16.7599
30 81 -15.0843
31 81 -13.64
32 81 -12.3444
33 81 -11.1845
34 81 -10.177
35 81 -9.30538
36 81 -8.50235
37 81 -7.76261
38 81 -7.08305
39 81 -6.45108
40 81 -5.89838
41 81 -5.38977
42 81 -4.92195
43 81 -4.49966
44 81 -4.0814
45 81 -3.69977
46 81 -3.36771
47 81 -3.06588
48 81 -2.74505
49 81 -2.46145
50 81 -2.16668
51 81 -1.87571
52 81 -1.57211
53 81 -1.26876
54 81 -0.982824
55 81 -0.774566
56 81 -0.656379
57 81 -0.565683
58 81 -0.552319
59 81 -0.60736
60 81 -0.687193
61 81 -0.772684
62 81 -0.834283
63 81 -0.972171
64 81 -1.16495
65 81 -1.29513
66 81 -1.38932
67 81 -1.42449
68 81 -1.37924
69 81 -1.32814
70 81 -1.25669
71 81 -1.25024
72 81 -1.32689
73 81 -1.48623
74 81 -1.65662
75 81 -1.88213
76 81 -2.10404
77 81 -2.43749
78 81 -2.99056
79 81 -3.75138
80 81 -4.56212
81 81 -5.37854
82 81 -6.20899
83 81 -7.02933
84 81 -7.80621
85 81 -8.58654
86 81 -9.3554
87 81 -10.1326
88 81 -10.9851
89 81 -11.9116
90 81 -12.9642
91 81 -14.0867
92 81 -15.4431
93 81 -17.2818
94 81 -21.7839
95 81 -32.0708
96 81 -32.0708
97 81 -32.0708
98 81 -32.0708
99 81 -32.0708
100 81 -32.0708
101 81 -32.0708
102 81 -32.0708
103 81 -32.0708
104 81 -32.0708
105 81 -32.0708
106 81 -32.0708
107 81 -32.0708
108 81 -32.0708
109 81 -32.0708
110 81 -32.0708
111 81 -32.0708
112 81 -32.0708
113 81 -32.0708
114 81 -32.0708
115 81 -32.0708
116 81 -32.0708
117 81 -32.0708
118 81 -32.0708
119 81 -32.0708
0 82 -32.0708
1 82 -32.0708
2 82 -32.0708
3 82 -32.0708
4 82 -32.0708
5 82 -32.0708
6 82 -32.0708
7 82 -32.0708
8 82 -32.0708
9 82 -32.0708
10 82 -32.0708
11 82 -32.0708
12 82 -32.0708
13 82 -32.0708
14 82 -32.0708
15 82 -32.0708
16 82 -32.0708
17 82 -32.0708
18 82 -32.0708
19 82 -32.0708
20 82 -32.0708
21 82 -32.0708
22 82 -32.0708
23 82 -32.0708
24 82 -32.0708
25 82 -32.0708
26 82 -32.0708
27 82 -21.3274
28 82 -19.7
29 82 -17.8194
30 82 -16.0205
31 82 -14.3737
32 82 -12.9905
33 82 -11.7425
34 82 -10.6811
35 82 -9.75517
36 82 -8.89712
37 82 -8.14893
38 82 -7.46654
39 82 -6.8163
40 82 -6.2348
41 82 -5.72897
42 82 -5.24775
43 82 -4.84761
44 82 -4.42591
45 82 -4.04271
46 82 -3.71587
47 82 -3.41414
48 82 -3.11115
49 82 -2.79905
50 82 -2.48123
51 82 -2.17202
52 82 -1.84667
53 82 -1.50007
54 82 -1.25004
55 82 -1.01538
56 82 -0.868608
57 82 -0.775231
58 82 -0.761539
59 82 -0.813579
60 82 -0.892658
61 82 -0.997256
62 82 -1.12713
63 82 -1.28775
64 82 -1.50708
65 82 -1.71281
66 82 -1.82459
67 82 -1.88463
68 82 -1.86306
69 82 -1.78957
70 82 -1.70135
71 82 -1.66998
72 82 -1.70556
73 82 -1.78943
74 82 -1.96901
75 82 -2.20012
76 82 -2.41595
77 82 -2.63639
78 82 -3.13344
79 82 -3.84932
80 82 -4.65104
81 82 -5.47521
82 82 -6.30484
83 82 -7.10966
84 82 -7.90743
85 82 -8.69119
86 82 -9.49217
87 82 -10.3016
88 82 -11.1578
89 82 -12.1019
90 82 -13.2021
91 82 -14.3763
92 82 -15.7673
93 82 -17.681
94 82 -22.7794
95 82 -32.0708
96 82 -32.0708
97 82 -32.0708
98 82 -32.0708
99 82 -32.0708
100 82 -32.0708
101 82 -32.0708
102 82 -32.0708
103 82 -32.0708
104 82 -32.0708
105 82 -32.0708
106 82 -32.0708
107 82 -32.0708
108 82 -32.0708
109 82 -32.0708
110 82 -32.0708
111 82 -32.0708
112 82 -32.0708
113 82 -32.0708
114 82 -32.0708
115 82 -32.0708
116 82 -32.0708
117 82 -32.0708
118 82 -32.0708
119 82 -32.0708
0 83 -32.0708
1 83 -32.0708
2 83 -32.0708
3 83 -32.0708
4 83 -32.0708
5 83 -32.0708
6 83 -32.0708
7 83 -32.0708
8 83 -32.0708
9 83 -32.0708
10 83 -32.0708
11 83 -32.0708
12 83 -32.0708
13 83 -32.0708
14 83 -32.0708
15 83 -32.0708
16 83 -32.0708
17 83 -32.0708
18 83 -32.0708
19 83 -32.0708
20 83 -32.0708
21 83 -32.0708
22 83 -32.0708
23 83 -32.0708
24 83 -32.0708
25 83 -32.0708
26 83 -32.0708
27 83 -32.0708
28 83 -21.4899
29 83 -19.1954
30 83 -17.0563
31 83 -15.212
32 83 -13.7031
33 83 -12.3487
34 83 -11.2193
35 83 -10.2457
36 83 -9.37203
37 83 -8.57862
38 83 -7.8601
39 83 -7.21315
40 83 -6.62231
41 83 -6.09719
42 83 -5.63098
43 83 -5.19341
44 83 -4.7914
45 83 -4.42028
46 83 -4.09177
47 83 -3.7719
48 83 -3.45643
49 83 -3.14577
50 83 -2.81809
51 83 -2.47465
52 83 -2.14121
53 83 -1.78939
54 83 -1.50602
55 83 -1.2828
56 83 -1.09145
57 83 -1.00397
58 83 -0.991389
59 83 -1.03497
60 83 -1.12194
61 83 -1.246
62 83 -1.42178
63 83 -1.67726
64 83 -1.94188
65 83 -2.18625
66 83 -2.33119
67 83 -2.40977
68 83 -2.38333
69 83 -2.32045
70 83 -2.23592
71 83 -2.12079
72 83 -2.11421
73 83 -2.18652
74 83 -2.29577
75 83 -2.49145
76 83 -2.6947
77 83 -2.90788
78 83 -3.32148
79 83 -3.97375
80 83 -4.75257
81 83 -5.58296
82 83 -6.38246
83 83 -7.20888
84 83 -8.00534
85 83 -8.81331
86 83 -9.60046
87 83 -10.4344
88 83 -11.3315
89 83 -12.3592
90 83 -13.4428
91 83 -14.6949
92 83 -16.0975
93 83 -18.1532
94 83 -24.1462
95 83 -32.0708
96 83 -32.0708
97 83 -32.0708
98 83 -32.0708
99 83 -32.0708
100 83 -32.0708
101 83 -32.0708
102 83 -32.0708
103 83 -32.0708
104 83 -32.0708
105 83 -32.0708
106 83 -32.0708
107 83 -32.0708
108 83 -32.0708
109 83 -32.0708
110 83 -32.0708
111 83 -32.0708
112 83 -32.0708
113 83 -32.0708
114 83 -32.0708
115 83 -32.0708
116 83 -32.0708
117 83 -32.0708
118 83 -32.0708
119 83 -32.0708
0 84 -32.0708
1 84 -32.0708
2 84 -32.0708
3 84 -32.0708
4 84 -32.0708
5 84 -32.0708
6 84 -32.0708
7 84 -32.0708
8 84 -32.0708
9 84 -32.0708
10 84 -32.0708
11 84 -32.0708
12 84 -32.0708
13 84 -32.0708
14 84 -32.0708
15 84 -32.0708
16 84 -32.0708
17 84 -32.0708
18 84 -32.0708
19 84 -32.0708
20 84 -32.0708
21 84 -32.0708
22 84 -32.0708
23 84 -32.0708
24 84 -32.0708
25 84 -32.0708
26 84 -32.0708
27 84 -32.0708
28 84 -23.9763
29 84 -20.7874
30 84 -18.3086
31 84 -16.2933
32 84 -14.5297
33 84 -13.0676
34 84 -11.8381
35 84 -10.8083
36 84 -9.90235
37 84 -9.07923
38 84 -8.3312
39 84 -7.65779
40 84 -7.05866
41 84 -6.51598
42 84 -6.02715
43 84 -5.58663
44 84 -5.19144
45 84 -4.82761
46 84 -4.47391
47 84 -4.13954
48 84 -3.83368
49 84 -3.50004
50 84 -3.15704
51 84 -2.78741
52 84 -2.42277
53 84 -2.09027
54 84 -1.78203
55 84 -1.5557
56 84 -1.36347
57 84 -1.24831
58 84 -1.21785
59 84 -1.2644
60 84 -1.35799
61 84 -1.51928
62 84 -1.72862
63 84 -2.05854
64 84 -2.39759
65 84 -2.69115
66 84 -2.86903
67 84 -2.92336
68 84 -2.91624
69 84 -2.80652
70 84 -2.70512
71 84 -2.64917
72 84 -2.58736
73 84 -2.5931
74 84 -2.63927
75 84 -2.78712
76 84 -2.96732
77 84 -3.14646
78 84 -3.55642
79 84 -4.13228
80 84 -4.88872
81 84 -5.69909
82 84 -6.49922
83 84 -7.32339
84 84 -8.13188
85 84 -8.94403
86 84 -9.74319
87 84 -10.6107
88 84 -11.5295
89 84 -12.5743
90 84 -13.6962
91 84 -14.9389
92 84 -16.4456
93 84 -18.7528
94 84 -25.5773
95 84 -32.0708
96 84 -32.0708
97 84 -32.0708
98 84 -32.0708
99 84 -32.0708
100 84 -32.0708
101 84 -32.0708
102 84 -32.0708
103 84 -32.0708
104 84 -32.0708
105 84 -32.0708
106 84 -32.0708
107 84 -32.0708
108 84 -32.0708
109 84 -32.0708
110 84 -32.0708
111 84 -32.0708
112 84 -32.0708
113 84 -32.0708
114 84 -32.0708
115 84 -32.0708
116 84 -32.0708
117 84 -32.0708
118 84 -32.0708
119 84 -32.0708
0 85 -32.0708
1 85 -32.0708
2 85 -32.0708
3 85 -32.0708
4 85 -32.0708
5 85 -32.0708
6 85 -32.0708
7 85 -32.0708
8 85 -32.0708
9 85 -32.0708
10 85 -32.0708
11 85 -32.0708
12 85 -32.0708
13 85 -32.0708
14 85 -32.0708
15 85 -32.0708
16 85 -32.0708
17 85 -32.0708
18 85 -32.0708
19 85 -32.0708
20 85 -32.0708
21 85 -32.0708
22 85 -32.0708
23 85 -32.0708
24 85 -32.0708
25 85 -32.0708
26 85 -32.0708
27 85 -32.0708
28 85 -32.0708
29 85 -22.6731
30 85 -19.7422
31 85 -17.4163
32 85 -15.4847
33 85 -13.8902
34 85 -12.5462
35 85 -11.4453
36 85 -10.5032
37 85 -9.64275
38 85 -8.86743
39 85 -8.16472
40 85 -7.52776
41 85 -6.98224
42 85 -6.48533
43 85 -6.03597
44 85 -5.63419
45 85 -5.26274
46 85 -4.88549
47 85 -4.56258
48 85 -4.22482
49 85 -3.87974
50 85 -3.49978
51 85 -3.09254
52 85 -2.69286
53 85 -2.33122
54 85 -2.03202
55 85 -1.75707
56 85 -1.55369
57 85 -1.42123
58 85 -1.41794
59 85 -1.43518
60 85 -1.54821
61 85 -1.72068
62 85 -2.00272
63 85 -2.39569
64 85 -2.78647
65 85 -3.11642
66 85 -3.28554
67 85 -3.37968
68 85 -3.36681
69 85 -3.24601
70 85 -3.14974
71 85 -3.05371
72 85 -2.95023
73 85 -2.89312
74 85 -2.94047
75 85 -3.07568
76 85 -3.24099
77 85 -3.38569
78 85 -3.78561
79 85 -4.31697
80 85 -5.06028
81 85 -5.82985
82 85 -6.63816
83 85 -7.42279
84 85 -8.22153
85 85 -9.02586
86 85 -9.87872
87 85 -10.7875
88 85 -11.7263
89 85 -12.7795
90 85 -13.9289
91 85 -15.213
92 85 -16.85
93 85 -19.317
94 85 -27.2245
95 85 -32.0708
96 85 -32.0708
97 85 -32.0708
98 85 -32.0708
99 85 -32.0708
100 85 -32.0708
101 85 -32.0708
102 85 -32.0708
103 85 -32.0708
104 85 -32.0708
105 85 -32.0708
106 85 -32.0708
107 85 -32.0708
108 85 -32.0708
109 85 -32.0708
110 85 -32.0708
111 85 -32.0708
112 85 -32.0708
113 85 -32.0708
114 85 -32.0708
115 85 -32.0708
116 85 -32.0708
117 85 -32.0708
118 85 -32.0708
119 85 -32.0708
0 86 -32.0708
1 86 -32.0708
2 86 -32.0708
3 86 -32.0708
4 86 -32.0708
5 86 -32.0708
6 86 -32.0708
7 86 -32.0708
8 86 -32.0708
9 86 -32.0708
10 86 -32.0708
11 86 -32.0708
12 86 -32.0708
13 86 -32.0708
14 86 -32.0708
15 86 -32.0708
16 86 -32.0708
17 86 -32.0708
18 86 -32.0708
19 86 -32.0708
20 86 -32.0708
21 86 -32.0708
22 86 -32.0708
23 86 -32.0708
24 86 -32.0708
25 86 -32.0708
26 86 -32.0708
27 86 -32.0708
28 86 -32.0708
29 86 -24.7219
30 86 -21.3396
31 86 -18.7048
32 86 -16.553
33 86 -14.7626
34 86 -13.3273
35 86 -12.1403
36 86 -11.1563
37 86 -10.2528
38 86 -9.45008
39 86 -8.7086
40 86 -8.03971
41 86 -7.4625
42 86 -6.93937
43 86 -6.46035
44 86 -6.03927
45 86 -5.64757
46 86 -5.2846
47 86 -4.94067
48 86 -4.58305
49 86 -4.21393
50 86 -3.79941
51 86 -3.36601
52 86 -2.95797
53 86 -2.57114
54 86 -2.24065
55 86 -1.94972
56 86 -1.75402
57 86 -1.60706
58 86 -1.56479
59 86 -1.57597
60 86 -1.6719
61 86 -1.84277
62 86 -2.16016
63 86 -2.62024
64 86 -3.05613
65 86 -3.32829
66 86 -3.54087
67 86 -3.60544
68 86 -3.57631
69 86 -3.5
70 86 -3.39193
71 86 -3.30044
72 86 -3.18529
73 86 -3.13032
74 86 -3.13124
75 86 -3.23602
76 86 -3.4119
77 86 -3.57752
78 86 -3.9447
79 86 -4.46534
80 86 -5.20291
81 86 -5.96044
82 86 -6.73603
83 86 -7.49858
84 86 -8.30187
85 86 -9.13879
86 86 -10.0012
87 86 -10.922
88 86 -11.8982
89 86 -12.9513
90 86 -14.1306
91 86 -15.3878
92 86 -17.1663
93 86 -20.0595
94 86 -28.6338
95 86 -32.0708
96 86 -32.0708
97 86 -32.0708
98 86 -32.0708
99 86 -32.0708
100 86 -32.0708
101 86 -32.0708
102 86 -32.0708
103 86 -32.0708
104 86 -32.0708
105 86 -32.0708
106 86 -32.0708
107 86 -32.0708
108 86 -32.0708
109 86 -32.0708
110 86 -32.0708
111 86 -32.0708
112 86 -32.0708
113 86 -32.0708
114 86 -32.0708
115 86 -32.0708
116 86 -32.0708
117 86 -32.0708
118 86 -32.0708
119 86 -32.0708
0 87 -32.0708
1 87 -32.0708
2 87 -32.0708
3 87 -32.0708
4 87 -32.0708
5 87 -32.0708
6 87 -32.0708
7 87 -32.0708
8 87 -32.0708
9 87 -32.0708
10 87 -32.0708
11 87 -32.0708
12 87 -32.0708
13 87 -32.0708
14 87 -32.0708
15 87 -32.0708
16 87 -32.0708
17 87 -32.0708
18 87 -32.0708
19 87 -32.0708
20 87 -32.0708
21 87 -32.0708
22 87 -32.0708
23 87 -32.0708
24 87 -32.0708
25 87 -32.0708
26 87 -32.0708
27 87 -32.0708
28 87 -32.0708
29 87 -32.0708
30 87 -23.3532
31 87 -19.9858
32 87 -17.6427
33 87 -15.6954
34 87 -14.1341
35 87 -12.8399
36 87 -11.8187
37 87 -10.8813
38 87 -10.0186
39 87 -9.23169
40 87 -8.53683
41 87 -7.91572
42 87 -7.36449
43 87 -6.84914
44 87 -6.41725
45 87 -6.01564
46 87 -5.62924
47 87 -5.25353
48 87 -4.87016
49 87 -4.47019
50 87 -4.02588
51 87 -3.57904
52 87 -3.15173
53 87 -2.75805
54 87 -2.38582
55 87 -2.09027
56 87 -1.86853
57 87 -1.69392
58 87 -1.61765
59 87 -1.61831
60 87 -1.66309
61 87 -1.83393
62 87 -2.1754
63 87 -2.59833
64 87 -3.07852
65 87 -3.4032
66 87 -3.53104
67 87 -3.57741
68 87 -3.55983
69 87 -3.51227
70 87 -3.44155
71 87 -3.32875
72 87 -3.22313
73 87 -3.18008
74 87 -3.21417
75 87 -3.34868
76 87 -3.5085
77 87 -3.67415
78 87 -4.04354
79 87 -4.58593
80 87 -5.29314
81 87 -6.02882
82 87 -6.7605
83 87 -7.54991
84 87 -8.3496
85 87 -9.22929
86 87 -10.1279
87 87 -11.0318
88 87 -12.0345
89 87 -13.1008
90 87 -14.286
91 87 -15.5666
92 87 -17.3014
93 87 -21.6798
94 87 -32.0708
95 87 -32.0708
96 87 -32.0708
97 87 -32.0708
98 87 -32.0708
99 87 -32.0708
100 87 -32.0708
101 87 -32.0708
102 87 -32.0708
103 87 -32.0708
104 87 -32.0708
105 87 -32.0708
106 87 -32.0708
107 87 -32.0708
108 87 -32.0708
109 87 -32.0708
110 87 -32.0708
111 87 -32.0708
112 87 -32.0708
113 87 -32.0708
114 87 -32.0708
115 87 -32.0708
116 87 -32.0708
117 87 -32.0708
118 87 -32.0708
119 87 -32.0708
0 88 -32.0708
1 88 -32.0708
2 88 -32.0708
3 88 -32.0708
4 88 -32.0708
5 88 -32.0708
6 88 -32.0708
7 88 -32.0708
8 88 -32.0708
9 88 -32.0708
10 88 -32.0708
11 88 -32.0708
12 88 -32.0708
13 88 -32.0708
14 88 -32.0708
15 88 -32.0708
16 88 -32.0708
17 88 -32.0708
18 88 -32.0708
19 88 -32.0708
20 88 -32.0708
21 88 -32.0708
22 88 -32.0708
23 88 -32.0708
24 88 -32.0708
25 88 -32.0708
26 88 -32.0708
27 88 -32.0708
28 88 -32.0708
29 88 -32.0708
30 88 -25.1234
31 88 -21.2904
32 88 -18.6302
33 88 -16.6213
34 88 -14.9445
35 88 -13.5616
36 88 -12.46
37 88 -11.4716
38 88 -10.5683
39 88 -9.75651
40 88 -9.00579
41 88 -8.3361
42 88 -7.73717
43 88 -7.21353
44 88 -6.74067
45 88 -6.31448
46 88 -5.89958
47 88 -5.50865
48 88 -5.07983
49 88 -4.62675
50 88 -4.18991
51 88 -3.75321
52 88 -3.30637
53 88 -2.8711
54 88 -2.50413
55 88 -2.19412
56 88 -1.92754
57 88 -1.72506
58 88 -1.60972
59 88 -1.56776
60 88 -1.5577
61 88 -1.73516
62 88 -2.04787
63 88 -2.41187
64 88 -2.88676
65 88 -3.20059
66 88 -3.36915
67 88 -3.40145
68 88 -3.38304
69 88 -3.3273
70 88 -3.23829
71 88 -3.17501
72 88 -3.08737
73 88 -3.08472
74 88 -3.12688
75 88 -3.27274
76 88 -3.45709
77 88 -3.68668
78 88 -4.09617
79 88 -4.64363
80 88 -5.30357
81 88 -6.03355
82 88 -6.78885
83 88 -7.56817
84 88 -8.40592
85 88 -9.29364
86 88 -10.1912
87 88 -11.1274
88 88 -12.1718
89 88 -13.2623
90 88 -14.4541
91 88 -15.8288
92 88 -17.8074
93 88 -23.103
94 88 -32.0708
95 88 -32.0708
96 88 -32.0708
97 88 -32.0708
98 88 -32.0708
99 88 -32.0708
100 88 -32.0708
101 88 -32.0708
102 88 -32.0708
103 88 -32.0708
104 88 -32.0708
105 88 -32.0708
106 88 -32.0708
107 88 -32.0708
108 88 -32.0708
109 88 -32.0708
110 88 -32.0708
111 88 -32.0708
112 88 -32.0708
113 88 -32.0708
114 88 -32.0708
115 88 -32.0708
116 88 -32.0708
117 88 -32.0708
118 88 -32.0708
119 88 -32.0708
0 89 -32.0708
1 89 -32.0708
2 89 -32.0708
3 89 -32.0708
4 89 -32.0708
5 89 -32.0708
6 89 -32.0708
7 89 -32.0708
8 89 -32.0708
9 89 -32.0708
10 89 -32.0708
11 89 -32.0708
12 89 -32.0708
13 89 -32.0708
14 89 -32.0708
15 89 -32.0708
16 89 -32.0708
17 89 -32.0708
18 89 -32.0708
19 89 -32.0708
20 89 -32.0708
21 89 -32.0708
22 89 -32.0708
23 89 -32.0708
24 89 -32.0708
25 89 -32.0708
26 89 -32.0708
27 89 -32.0708
28 89 -32.0708
29 89 -32.0708
30 89 -27.0653
31 89 -22.6767
32 89 -19.5753
33 89 -17.4123
34 89 -15.6909
35 89 -14.2254
36 89 -13.0538
37 89 -12.0367
38 89 -11.093
39 89 -10.2076
40 89 -9.43093
41 89 -8.71859
42 89 -8.08707
43 89 -7.5267
44 89 -7.01807
45 89 -6.55841
46 89 -6.11795
47 89 -5.6863
48 89 -5.20066
49 89 -4.73189
50 89 -4.27518
51 89 -3.81122
52 89 -3.34933
53 89 -2.92933
54 89 -2.54135
55 89 -2.21338
56 89 -1.95231
57 89 -1.71929
58 89 -1.57061
59 89 -1.48845
60 89 -1.47182
61 89 -1.58774
62 89 -1.8234
63 89 -2.13476
64 89 -2.55558
65 89 -2.91497
66 89 -3.08138
67 89 -3.18096
68 89 -3.16318
69 89 -3.07556
70 89 -3.01417
71 89 -2.93089
72 89 -2.89398
73 89 -2.89344
74 89 -2.9444
75 89 -3.12589
76 89 -3.33373
77 89 -3.59952
78 89 -4.04309
79 89 -4.59693
80 89 -5.25554
81 89 -5.98649
82 89 -6.76098
83 89 -7.57063
84 89 -8.41998
85 89 -9.33269
86 89 -10.258
87 89 -11.2517
88 89 -12.2967
89 89 -13.4079
90 89 -14.6057
91 89 -16.1334
92 89 -18.4341
93 89 -24.7033
94 89 -32.0708
95 89 -32.0708
96 89 -32.0708
97 89 -32.0708
98 89 -32.0708
99 89 -32.0708
100 89 -32.0708
101 89 -32.0708
102 89 -32.0708
103 89 -32.0708
104 89 -32.0708
105 89 -32.0708
106 89 -32.0708
107 89 -32.0708
108 89 -32.0708
109 89 -32.0708
110 89 -32.0708
111 89 -32.0708
112 89 -32.0708
113 89 -32.0708
114 89 -32.0708
115 89 -32.0708
116 89 -32.0708
117 89 -32.0708
118 89 -32.0708
119 89 -32.0708
0 90 -32.0708
1 90 -32.0708
2 90 -32.0708
3 90 -32.0708
4 90 -32.0708
5 90 -32.0708
6 90 -32.0708
7 90 -32.0708
8 90 -32.0708
9 90 -32.0708
10 90 -32.0708
11 90 -32.0708
12 90 -32.0708
13 90 -32.0708
14 90 -32.0708
15 90 -32.0708
16 90 -32.0708
17 90 -32.0708
18 90 -32.0708
19 90 -32.0708
20 90 -32.0708
21 90 -32.0708
22 90 -32.0708
23 90 -32.0708
24 90 -32.0708
25 90 -32.0708
26 90 -32.0708
27 90 -32.0708
28 90 -32.0708
29 90 -32.0708
30 90 -32.0708
31 90 -24.3007
32 90 -20.5082
33 90 -18.1929
34 90 -16.3767
35 90 -14.855
36 90 -13.5987
37 90 -12.5359
38 90 -11.5634
39 90 -10.643
40 90 -9.79185
41 90 -9.04921
42 90 -8.37609
43 90 -7.77462
44 90 -7.24289
45 90 -6.74083
46 90 -6.25792
47 90 -5.78824
48 90 -5.27425
49 90 -4.77126
50 90 -4.30279
51 90 -3.82319
52 90 -3.34411
53 90 -2.94352
54 90 -2.56431
55 90 -2.23573
56 90 -1.94371
57 90 -1.69896
58 90 -1.51417
59 90 -1.39662
60 90 -1.34889
61 90 -1.4042
62 90 -1.58084
63 90 -1.83974
64 90 -2.17441
65 90 -2.50061
66 90 -2.71552
67 90 -2.79257
68 90 -2.79573
69 90 -2.75044
70 90 -2.68191
71 90 -2.64115
72 90 -2.62037
73 90 -2.6597
74 90 -2.72685
75 90 -2.93404
76 90 -3.14125
77 90 -3.44944
78 90 -3.91795
79 90 -4.4944
80 90 -5.1743
81 90 -5.90242
82 90 -6.70629
83 90 -7.54535
84 90 -8.41593
85 90 -9.35691
86 90 -10.3085
87 90 -11.3261
88 90 -12.3692
89 90 -13.4928
90 90 -14.7533
91 90 -16.3828
92 90 -19.0363
93 90 -26.4562
94 90 -32.0708
95 90 -32.0708
96 90 -32.0708
97 90 -32.0708
98 90 -32.0708
99 90 -32.0708
100 90 -32.0708
101 90 -32.0708
102 90 -32.0708
103 90 -32.0708
104 90 -32.0708
105 90 -32.0708
106 90 -32.0708
107 90 -32.0708
108 90 -32.0708
109 90 -32.0708
110 90 -32.0708
111 90 -32.0708
112 90 -32.0708
113 90 -32.0708
114 90 -32.0708
115 90 -32.0708
116 90 -32.0708
117 90 -32.0708
118 90 -32.0708
119 90 -32.0708
0 91 -32.0708
1 91 -32.0708
2 91 -32.0708
3 91 -32.0708
4 91 -32.0708
5 91 -32.0708
6 91 -32.0708
7 91 -32.0708
8 91 -32.0708
9 91 -32.0708
10 91 -32.0708
11 91 -32.0708
12 91 -32.0708
13 91 -32.0708
14 91 -32.0708
15 91 -32.0708
16 91 -32.0708
17 91 -32.0708
18 91 -32.0708
19 91 -32.0708
20 91 -32.0708
21 91 -32.0708
22 91 -32.0708
23 91 -32.0708
24 91 -32.0708
25 91 -32.0708
26 91 -32.0708
27 91 -32.0708
28 91 -32.0708
29 91 -32.0708
30 91 -32.0708
31 91 -26.1039
32 91 -21.6
33 91 -18.8667
34 91 -16.9832
35 91 -15.3952
36 91 -14.084
37 91 -12.9589
38 91 -11.9695
39 91 -11.0241
40 91 -10.1487
41 91 -9.34771
42 91 -8.62922
43 91 -7.98214
44 91 -7.40332
45 91 -6.86181
46 91 -6.33269
47 91 -5.82286
48 91 -5.28606
49 91 -4.79053
50 91 -4.2607
51 91 -3.7788
52 91 -3.32135
53 91 -2.92407
54 91 -2.5508
55 91 -2.21713
56 91 -1.91688
57 91 -1.65884
58 91 -1.44026
59 91 -1.29764
60 91 -1.22799
61 91 -1.2213
62 91 -1.34217
63 91 -1.54419
64 91 -1.80767
65 91 -2.08659
66 91 -2.27882
67 91 -2.38625
68 91 -2.4204
69 91 -2.42569
70 91 -2.41631
71 91 -2.38814
72 91 -2.39039
73 91 -2.41688
74 91 -2.55069
75 91 -2.72149
76 91 -2.9632
77 91 -3.25983
78 91 -3.73823
79 91 -4.32218
80 91 -5.01921
81 91 -5.78695
82 91 -6.5915
83 91 -7.4804
84 91 -8.38331
85 91 -9.34813
86 91 -10.3346
87 91 -11.3727
88 91 -12.4485
89 91 -13.5714
90 91 -14.8491
91 91 -16.4243
92 91 -20.0588
93 91 -32.0708
94 91 -32.0708
95 91 -32.0708
96 91 -32.0708
97 91 -32.0708
98 91 -32.0708
99 91 -32.0708
100 91 -32.0708
101 91 -32.0708
102 91 -32.0708
103 91 -32.0708
104 91 -32.0708
105 91 -32.0708
106 91 -32.0708
107 91 -32.0708
108 91 -32.0708
109 91 -32.0708
110 91 -32.0708
111 91 -32.0708
112 91 -32.0708
113 91 -32.0708
114 91 -32.0708
115 91 -32.0708
116 91 -32.0708
117 91 -32.0708
118 91 -32.0708
119 91 -32.0708
0 92 -32.0708
1 92 -32.0708
2 92 -32.0708
3 92 -32.0708
4 92 -32.0708
5 92 -32.0708
6 92 -32.0708
7 92 -32.0708
8 92 -32.0708
9 92 -32.0708
10 92 -32.0708
11 92 -32.0708
12 92 -32.0708
13 92 -32.0708
14 92 -32.0708
15 92 -32.0708
16 92 -32.0708
17 92 -32.0708
18 92 -32.0708
19 92 -32.0708
20 92 -32.0708
21 92 -32.0708
22 92 -32.0708
23 92 -32.0708
24 92 -32.0708
25 92 -32.0708
26 92 -32.0708
27 92 -32.0708
28 92 -32.0708
29 92 -32.0708
30 92 -32.0708
31 92 -32.0708
32 92 -23.0293
33 92 -19.5472
34 92 -17.5335
35 92 -15.8667
36 92 -14.4942
37 92 -13.3261
38 92 -12.309
39 92 -11.3143
40 92 -10.4239
41 92 -9.58522
42 92 -8.80547
43 92 -8.10022
44 92 -7.47942
45 92 -6.89592
46 92 -6.33994
47 92 -5.81733
48 92 -5.28998
49 92 -4.72536
50 92 -4.2
51 92 -3.72871
52 92 -3.29208
53 92 -2.86467
54 92 -2.5063
55 92 -2.171
56 92 -1.85748
57 92 -1.58543
58 92 -1.35689
59 92 -1.171
60 92 -1.08952
61 92 -1.06111
62 92 -1.13386
63 92 -1.2878
64 92 -1.50489
65 92 -1.71999
66 92 -1.91171
67 92 -2.02571
68 92 -2.09419
69 92 -2.13469
70 92 -2.16994
71 92 -2.1549
72 92 -2.15768
73 92 -2.22173
74 92 -2.32969
75 92 -2.49604
76 92 -2.73631
77 92 -3.09997
78 92 -3.58242
79 92 -4.18986
80 92 -4.85056
81 92 -5.63106
82 92 -6.46567
83 92 -7.34305
84 92 -8.31086
85 92 -9.29951
86 92 -10.3108
87 92 -11.3895
88 92 -12.5136
89 92 -13.6812
90 92 -14.9817
91 92 -16.5825
92 92 -20.9837
93 92 -32.0708
94 92 -32.0708
95 92 -32.0708
96 92 -32.0708
97 92 -32.0708
98 92 -32.0708
99 92 -32.0708
100 92 -32.0708
101 92 -32.0708
102 92 -32.0708
103 92 -32.0708
104 92 -32.0708
105 92 -32.0708
106 92 -32.0708
107 92 -32.0708
108 92 -32.0708
109 92 -32.0708
110 92 -32.0708
111 92 -32.0708
112 92 -32.0708
113 92 -32.0708
114 92 -32.0708
